-1.36949, -1.8121, -0.0380993, 12, 
-1.35632, -1.81699, -0.0381921, 13, 
-1.33752, -1.81351, -0.0385169, 12, 
-1.32556, -1.8198, -0.0385633, 13, 
-1.30837, -1.81744, -0.0388417, 12, 
-1.29324, -1.81842, -0.0390272, 13, 
-1.27553, -1.81625, -0.0393056, 12, 
-1.26537, -1.82334, -0.0393056, 13, 
-1.2463, -1.81949, -0.0396304, 13, 
-1.23051, -1.81815, -0.0398624, 13, 
-1.21447, -1.81689, -0.0400943, 13, 
-1.19706, -1.81405, -0.0403727, 13, 
-1.17895, -1.80919, -0.0406975, 13, 
-1.16634, -1.81259, -0.0407903, 13, 
-1.15267, -1.81421, -0.0409295, 13, 
-1.13689, -1.81235, -0.0411615, 12, 
-1.12295, -1.81397, -0.0413006, 13, 
-1.10936, -1.81529, -0.0414398, 13, 
-1.09269, -1.81137, -0.0417182, 13, 
-1.07988, -1.81439, -0.041811, 12, 
-1.06264, -1.80833, -0.0421358, 12, 
-1.05321, -1.81615, -0.0420894, 12, 
-1.03844, -1.81542, -0.042275, 12, 
-1.02207, -1.81092, -0.0425533, 12, 
-1.00968, -1.81329, -0.0426461, 12, 
-0.995366, -1.81206, -0.0428317, 11, 
-0.981103, -1.81073, -0.0430173, 12, 
-0.969398, -1.81476, -0.0430637, 12, 
-0.952407, -1.80793, -0.0433885, 12, 
-0.941056, -1.81161, -0.0434349, 12, 
-0.927872, -1.81166, -0.043574, 11, 
-0.914403, -1.81178, -0.0437132, 12, 
-0.900706, -1.8097, -0.0438988, 12, 
-0.888191, -1.81142, -0.0439916, 11, 
-0.876873, -1.81471, -0.044038, 12, 
-0.864688, -1.81612, -0.0441308, 12, 
-0.851349, -1.81579, -0.04427, 12, 
-0.838678, -1.81507, -0.0444092, 14, 
-0.824581, -1.81273, -0.0445947, 13, 
-0.814127, -1.81745, -0.0445947, 13, 
-0.793963, -1.80016, -0.0451515, 12, 
-0.784859, -1.8085, -0.0450587, 13, 
-0.776318, -1.81654, -0.0449659, 13, 
-0.762425, -1.81374, -0.0451515, 13, 
-0.748146, -1.80886, -0.0453835, 13, 
-0.739222, -1.81684, -0.0452907, 13, 
-0.725774, -1.81365, -0.0454763, 13, 
-0.710191, -1.80477, -0.045801, 12, 
-0.698027, -1.80523, -0.0458938, 12, 
-0.686908, -1.80735, -0.0459402, 11, 
-0.675087, -1.80753, -0.046033, 12, 
-0.663977, -1.80951, -0.0460794, 11, 
-0.652866, -1.81142, -0.0461258, 13, 
-0.640105, -1.80961, -0.046265, 11, 
-0.629988, -1.81315, -0.046265, 13, 
-0.619863, -1.81875, -0.0462186, 13, 
-0.604305, -1.80712, -0.0465898, 12, 
-0.594509, -1.81247, -0.0465434, 12, 
-0.58252, -1.81216, -0.0466362, 13, 
-0.569068, -1.80595, -0.0468681, 12, 
-0.558657, -1.8092, -0.0468681, 12, 
-0.54707, -1.80856, -0.0469609, 12, 
-0.535509, -1.80785, -0.0470537, 12, 
-0.525884, -1.81483, -0.0469609, 13, 
-0.51106, -1.80244, -0.0473321, 12, 
-0.502054, -1.80912, -0.0472393, 10, 
-0.49204, -1.81602, -0.0471465, 12, 
-0.479841, -1.811, -0.0473321, 12, 
-0.4679, -1.80793, -0.0474713, 12, 
-0.456184, -1.8068, -0.0475641, 12, 
-0.446564, -1.81126, -0.0475177, 13, 
-0.434407, -1.80805, -0.0476569, 13, 
-0.424442, -1.81246, -0.0476105, 13, 
-0.413107, -1.81098, -0.0477033, 11, 
-0.399754, -1.80169, -0.0479816, 11, 
-0.39053, -1.8078, -0.0478888, 12, 
-0.379385, -1.80813, -0.0479352, 11, 
-0.369364, -1.81224, -0.0478888, 13, 
-0.357053, -1.80656, -0.0480744, 12, 
-0.345827, -1.80263, -0.0482136, 12, 
-0.335805, -1.80656, -0.0481672, 12, 
-0.324371, -1.80459, -0.04826, 12, 
-0.314314, -1.80839, -0.0482136, 12, 
-0.303247, -1.80826, -0.04826, 12, 
-0.292504, -1.80597, -0.0483528, 12, 
-0.282097, -1.80763, -0.0483528, 12, 
-0.271366, -1.80927, -0.0483528, 13, 
-0.261511, -1.81476, -0.04826, 13, 
-0.249917, -1.81034, -0.0483992, 13, 
-0.239015, -1.80576, -0.0485384, 13, 
-0.229364, -1.81306, -0.0483992, 13, 
-0.21884, -1.81637, -0.0483528, 13, 
-0.207236, -1.80767, -0.0485848, 13, 
-0.197038, -1.81082, -0.0485384, 14, 
-0.186605, -1.81193, -0.0485384, 13, 
-0.175973, -1.81098, -0.0485848, 14, 
-0.165042, -1.81, -0.0486312, 13, 
-0.154784, -1.81291, -0.0485848, 14, 
-0.143864, -1.8078, -0.048724, 14, 
-0.133134, -1.80862, -0.048724, 15, 
-0.122624, -1.80335, -0.0488632, 15, 
-0.112608, -1.81001, -0.048724, 15, 
-0.10164, -1.80666, -0.0488168, 15, 
-0.0909307, -1.80122, -0.048956, 15, 
-0.0806443, -1.80371, -0.0489096, 16, 
-0.0705656, -1.81214, -0.048724, 17, 
-0.0595472, -1.80453, -0.0489096, 17, 
-0.0492073, -1.80684, -0.0488632, 19, 
-0.038757, -1.8051, -0.0489096, 24, 
-0.028454, -1.81129, -0.0487704, 35, 
-0.0180213, -1.81142, -0.0487704, 37, 
-0.00724778, -1.8055, -0.0489096, 42, 
0.00283295, -1.80351, -0.048956, 58, 
0.0138959, -1.80946, -0.0488168, 58, 
0.0240546, -1.81335, -0.048724, 50, 
0.0344603, -1.81118, -0.0487704, 39, 
0.0452573, -1.81295, -0.048724, 35, 
0.055443, -1.81466, -0.0486776, 30, 
0.0661375, -1.81231, -0.048724, 30, 
0.0764056, -1.8079, -0.0488168, 24, 
0.0872967, -1.81741, -0.0485848, 20, 
0.0979721, -1.81487, -0.0486312, 17, 
0.108304, -1.81228, -0.0486776, 17, 
0.118479, -1.80763, -0.0487704, 16, 
0.129599, -1.81689, -0.0485384, 5, 
0.138678, -1.79817, -0.048956, 3, 
0.148371, -1.78938, -0.0491415, 3, 
0.159382, -1.79646, -0.048956, 3, 
0.171736, -1.8134, -0.0485384, 7, 
0.181777, -1.8084, -0.0486312, 9, 
0.193458, -1.81925, -0.0483528, 7, 
0.203042, -1.81016, -0.0485384, 8, 
0.21378, -1.80892, -0.0485384, 8, 
0.224441, -1.80964, -0.048492, 9, 
0.235375, -1.81229, -0.0483992, 9, 
0.245809, -1.8109, -0.0483992, 9, 
0.257076, -1.81539, -0.04826, 7, 
0.266944, -1.80993, -0.0483528, 6, 
0.27768, -1.80831, -0.0483528, 4, 
0.289979, -1.81853, -0.0480744, 5, 
0.299796, -1.81288, -0.0481672, 8, 
0.309557, -1.80719, -0.04826, 9, 
0.32031, -1.80734, -0.0482136, 9, 
0.33175, -1.80934, -0.0481208, 10, 
0.342166, -1.8074, -0.0481208, 10, 
0.351872, -1.8035, -0.0481672, 10, 
0.363672, -1.80524, -0.0480744, 10, 
0.37456, -1.80709, -0.0479816, 10, 
0.386529, -1.81071, -0.0478425, 10, 
0.396094, -1.80454, -0.0479352, 10, 
0.406606, -1.80425, -0.0478888, 10, 
0.418208, -1.8057, -0.0477961, 9, 
0.429988, -1.8091, -0.0476569, 9, 
0.44119, -1.80846, -0.0476105, 9, 
0.451598, -1.80589, -0.0476105, 9, 
0.463977, -1.81101, -0.0474249, 9, 
0.474907, -1.81024, -0.0473785, 9, 
0.485122, -1.80546, -0.0474249, 8, 
0.497632, -1.81034, -0.0472393, 9, 
0.508051, -1.80745, -0.0472393, 8, 
0.521765, -1.81602, -0.0469609, 5, 
0.532216, -1.81299, -0.0469609, 4, 
0.539204, -1.7984, -0.0472393, 3, 
0.554551, -1.81046, -0.0468681, 3, 
0.563776, -1.80342, -0.0469609, 3, 
0.577192, -1.80967, -0.046729, 3, 
0.589777, -1.81192, -0.0465898, 4, 
0.599258, -1.8067, -0.0466362, 3, 
0.608687, -1.79932, -0.046729, 3, 
0.615782, -1.78633, -0.0469609, 2, 
0.625749, -1.78287, -0.0469609, 2, 
0.643365, -1.79784, -0.046497, 2, 
0.656817, -1.80361, -0.046265, 4, 
0.670289, -1.80718, -0.0460794, 7, 
0.680687, -1.80329, -0.0460794, 9, 
0.693929, -1.8068, -0.0458938, 10, 
0.705779, -1.8065, -0.045801, 10, 
0.717649, -1.80612, -0.0457082, 10, 
0.730602, -1.80739, -0.0455691, 13, 
0.742519, -1.80686, -0.0454763, 11, 
0.754455, -1.80624, -0.0453835, 11, 
0.771096, -1.81659, -0.0450123, 7, 
0.780278, -1.80831, -0.0451051, 10, 
0.792285, -1.80745, -0.0450123, 10, 
0.805122, -1.80833, -0.0448731, 10, 
0.817171, -1.80731, -0.0447803, 10, 
0.827567, -1.80257, -0.0447803, 9, 
0.839625, -1.8014, -0.0446875, 10, 
0.85201, -1.8, -0.0445947, 10, 
0.866693, -1.80408, -0.0443628, 9, 
0.878821, -1.80265, -0.04427, 9, 
0.89039, -1.79919, -0.0442236, 9, 
0.908496, -1.81028, -0.043806, 12, 
0.919222, -1.80485, -0.043806, 11, 
0.933273, -1.80664, -0.0436204, 11, 
0.946446, -1.80654, -0.0434812, 12, 
0.960903, -1.80796, -0.0432957, 13, 
0.972882, -1.80608, -0.0432029, 13, 
0.989335, -1.81081, -0.0429245, 13, 
0.999748, -1.80508, -0.0429245, 13, 
1.01209, -1.80278, -0.0428317, 13, 
1.0274, -1.80561, -0.0425997, 13, 
1.04209, -1.80641, -0.0424141, 13, 
1.05651, -1.80728, -0.0422286, 12, 
1.06588, -1.79944, -0.042275, 12, 
1.0824, -1.80356, -0.0419966, 13, 
1.09828, -1.80565, -0.0417646, 13, 
1.11286, -1.8061, -0.041579, 13, 
1.12748, -1.80645, -0.0413934, 12, 
1.14107, -1.80499, -0.0412542, 12, 
1.1536, -1.80176, -0.0411615, 12, 
1.16754, -1.79991, -0.0410223, 13, 
1.18306, -1.80172, -0.0407903, 13, 
1.19515, -1.79613, -0.0407439, 12, 
1.21633, -1.80601, -0.0402799, 13, 
1.22672, -1.79897, -0.0402799, 13, 
1.2476, -1.80647, -0.0398624, 12, 
1.26027, -1.80253, -0.0397696, 12, 
1.2741, -1.80014, -0.0396304, 12, 
1.29175, -1.8023, -0.039352, 12, 
1.30296, -1.79667, -0.0393056, 10, 
1.31952, -1.79697, -0.0390736, 7, 
1.34416, -1.80859, -0.0385169, 14, 
1.35095, -1.79603, -0.0386561, 3, 
1.36279, -1.78957, -0.0386097, 3, 
1.37521, -1.7851, -0.0385169, 7, 
1.39438, -1.78794, -0.0381921, 17, 
1.41828, -1.79715, -0.0376818, 15, 
1.43641, -1.79807, -0.0374034, 14, 
1.45272, -1.7978, -0.0371714, 14, 
1.46842, -1.79534, -0.0369858, 14, 
1.50296, -1.81612, -0.0361043, 6, 
11.5309, -13.6064, 0.323046, 1, 
11.7314, -13.524, 0.324623, 10, 
11.8157, -13.4637, 0.324855, 13, 
11.9275, -13.4343, 0.326062, 12, 
12.0512, -13.4124, 0.327593, 9, 
12.2344, -13.4596, 0.331258, 6, 
12.438, -13.5309, 0.335666, 8, 
12.6879, -13.6347, 0.341372, 11, 
12.8338, -13.6379, 0.343738, 14, 
13.1048, -13.7614, 0.350141, 8, 
13.2587, -13.7634, 0.352646, 10, 
13.4061, -13.757, 0.35492, 10, 
13.5708, -13.7664, 0.35775, 13, 
13.7289, -13.7673, 0.360348, 13, 
13.8899, -13.7644, 0.362946, 15, 
13.9275, -13.6436, 0.361601, 9, 
14.0633, -13.6188, 0.363457, 9, 
14.2542, -13.6454, 0.367076, 9, 
14.3146, -13.5413, 0.366426, 7, 
14.4668, -13.5283, 0.368792, 9, 
14.5636, -13.4624, 0.369395, 9, 
14.6792, -13.4134, 0.370602, 9, 
14.8372, -13.3971, 0.373061, 8, 
15.1564, -13.5324, 0.38067, 10, 
15.3768, -13.5612, 0.384938, 8, 
15.5563, -13.5658, 0.388139, 9, 
15.7371, -13.5647, 0.391294, 9, 
15.93, -13.5671, 0.394727, 9, 
16.121, -13.5704, 0.398161, 9, 
16.3111, -13.5706, 0.401548, 10, 
16.5002, -13.5679, 0.404888, 10, 
16.6991, -13.571, 0.408507, 10, 
16.901, -13.5693, 0.412126, 10, 
17.1042, -13.5712, 0.415838, 11, 
17.3158, -13.5773, 0.419781, 11, 
17.513, -13.5649, 0.423214, 11, 
17.7298, -13.5751, 0.427344, 11, 
17.952, -13.577, 0.431473, 12, 
18.1676, -13.5763, 0.435463, 12, 
18.3975, -13.5787, 0.439778, 12, 
18.6087, -13.5747, 0.443675, 12, 
18.8463, -13.5774, 0.448175, 13, 
19.0724, -13.5741, 0.452397, 13, 
19.3089, -13.5756, 0.456898, 13, 
19.5567, -13.5771, 0.46163, 14, 
19.8011, -13.5784, 0.466316, 14, 
20.0462, -13.5774, 0.471002, 14, 
20.3043, -13.5771, 0.475967, 11, 
20.5416, -13.5704, 0.480467, 11, 
20.8211, -13.5783, 0.485988, 11, 
21.0855, -13.5783, 0.491138, 8, 
21.3574, -13.58, 0.496474, 8, 
21.6375, -13.5784, 0.501948, 12, 
21.9227, -13.582, 0.507609, 8, 
22.212, -13.5849, 0.513362, 8, 
22.5107, -13.5901, 0.519347, 9, 
22.7999, -13.5861, 0.525053, 13, 
23.1076, -13.5843, 0.531178, 14, 
23.4294, -13.5925, 0.537719, 9, 
23.7595, -13.5962, 0.5444, 10, 
24.0614, -13.5911, 0.550432, 10, 
24.4047, -13.6003, 0.557484, 10, 
24.7514, -13.6016, 0.564536, 16, 
25.1, -13.6055, 0.571681, 11, 
24.6354, -13.1651, 0.557345, 5, 
25.827, -13.6112, 0.586621, 17, 
26.1852, -13.608, 0.593951, 17, 
26.5675, -13.6128, 0.601885, 18, 
20.0117, -10.1087, 0.429432, 2, 
27.4086, -13.6416, 0.619608, 6, 
27.7811, -13.6279, 0.627217, 6, 
28.2012, -13.633, 0.636032, 6, 
21.3493, -10.1648, 0.457872, 6, 
21.6935, -10.1805, 0.465249, 3, 
22.024, -10.1765, 0.472162, 3, 
22.3389, -10.1663, 0.478704, 3, 
30.9722, -13.6604, 0.694677, 16, 
31.4612, -13.6601, 0.705069, 16, 
31.9696, -13.6626, 0.715926, 17, 
32.5011, -13.6689, 0.727339, 8, 
33.0283, -13.6673, 0.738613, 9, 
33.5792, -13.6624, 0.750398, 9, 
34.1975, -13.685, 0.763899, 9, 
34.7787, -13.6787, 0.77638, 10, 
35.3617, -13.6804, 0.788999, 10, 
35.6124, -13.535, 0.793221, 10, 
36.6675, -13.6948, 0.81744, 11, 
37.3558, -13.7073, 0.832519, 11, 
38.0385, -13.7022, 0.847365, 12, 
38.769, -13.7136, 0.863418, 13, 
29.0048, -10.0778, 0.621696, 19, 
29.0147, -9.88307, 0.620443, 19, 
42.5497, -13.6776, 0.946281, 20, 
43.1217, -13.5879, 0.958298, 21, 
60.804, -18.7755, 1.38584, 49, 
60.8072, -18.3819, 1.38324, 49, 
60.8181, -18.0036, 1.38096, 49, 
55.1364, -15.9769, 1.24122, 41, 
55.1448, -15.6356, 1.23922, 41, 
52.1787, -14.4606, 1.16559, 36, 
52.1338, -14.1254, 1.16253, 36, 
52.1587, -13.8004, 1.16114, 36, 
54.7085, -13.8027, 1.21844, 40, 
56.2102, -13.8378, 1.25245, 42, 
57.6771, -13.8471, 1.28557, 44, 
59.1971, -13.841, 1.31986, 46, 
60.9212, -13.8745, 1.35902, 48, 
67.596, -14.1708, 1.5118, 54, 
67.6907, -13.7718, 1.51208, 54, 
62.5779, 2.32744, 1.36227, 48, 
63.7651, 4.97363, 1.39331, 49, 
30.3491, 4.15191, 0.619979, 6, 
27.9675, 4.15482, 0.565279, 5, 
26.88, 4.15163, 0.540318, 4, 
25.7915, 4.13574, 0.51531, 4, 
24.567, 4.23463, 0.487658, 4, 
24.571, 4.3856, 0.488354, 4, 
24.5992, 4.53255, 0.489607, 4, 
24.6021, 4.67976, 0.490303, 4, 
24.6367, 4.838, 0.491788, 4, 
24.632, 4.98457, 0.492344, 4, 
24.6763, 5.14616, 0.494107, 4, 
24.6795, 5.29533, 0.494896, 4, 
24.6916, 5.44686, 0.495917, 4, 
24.6549, 5.5924, 0.495824, 4, 
24.6525, 5.73681, 0.49652, 4, 
24.7216, 6.05848, 0.499814, 20, 
24.7154, 6.20808, 0.50051, 16, 
24.6626, 6.35064, 0.500139, 8, 
24.7494, 6.5252, 0.503108, 4, 
24.3986, 6.58326, 0.495592, 4, 
23.9525, 6.61561, 0.485802, 11, 
23.9479, 6.75851, 0.486591, 12, 
24.2378, 6.99587, 0.494571, 16, 
23.6735, 6.98097, 0.481905, 15, 
23.6144, 7.11613, 0.481488, 15, 
23.5342, 7.23557, 0.480513, 7, 
22.104, 6.93968, 0.446784, 9, 
21.5362, 6.89793, 0.433932, 9, 
20.8518, 6.81139, 0.418204, 8, 
20.4108, 6.80163, 0.408414, 7, 
20.0267, 6.80204, 0.39997, 7, 
19.0048, 6.82341, 0.377747, 6, 
18.2828, 6.80659, 0.361879, 9, 
17.9367, 6.7956, 0.35427, 8, 
17.5864, 6.78248, 0.346569, 8, 
17.2324, 6.76026, 0.338728, 8, 
16.8669, 6.8455, 0.331583, 13, 
16.6091, 6.85255, 0.326108, 1, 
15.7454, 6.70951, 0.306343, 9, 
15.454, 6.69395, 0.299987, 12, 
15.1809, 6.67977, 0.294048, 11, 
14.9067, 6.66186, 0.288063, 11, 
13.2157, 6.00045, 0.245982, 2, 
13.1838, 6.075, 0.246029, 3, 
12.8608, 6.1095, 0.23958, 1, 
12.6453, 6.09663, 0.23494, 1, 
12.5047, 6.12058, 0.232249, 1, 
12.1576, 6.03775, 0.224176, 1, 
12.1745, 6.13377, 0.225522, 3, 
13.7258, 7.01782, 0.266907, 1, 
12.1452, 6.38719, 0.22761, 1, 
11.8965, 6.34413, 0.222042, 2, 
11.96, 6.55876, 0.225707, 6, 
14.2393, 7.91573, 0.287228, 2, 
11.6084, 6.541, 0.218377, 1, 
10.4185, 6.03211, 0.188544, 1, 
10.3319, 6.06167, 0.187152, 1, 
10.0905, 5.99847, 0.181585, 1, 
10.077, 6.07165, 0.182188, 2, 
10.0293, 6.11951, 0.181817, 3, 
10.0291, 6.2038, 0.182838, 3, 
10.0045, 6.26608, 0.183116, 2, 
9.99864, 6.34288, 0.183951, 2, 
9.99278, 6.42264, 0.184833, 3, 
9.96903, 6.48881, 0.185204, 3, 
9.04064, 5.9612, 0.160475, 0, 
9.02278, 6.02428, 0.160939, 2, 
8.94427, 6.04435, 0.159686, 2, 
8.67889, 5.94034, 0.153237, 0, 
8.65933, 6.00048, 0.153655, 2, 
9.10966, 6.39288, 0.167434, 2, 
9.09551, 6.46145, 0.168084, 2, 
8.80547, 6.4093, 0.161913, 3, 
8.65622, 6.37959, 0.158712, 2, 
8.42713, 6.43837, 0.155279, 26, 
8.31919, 6.43444, 0.153237, 30, 
8.21428, 6.42925, 0.151242, 31, 
8.1227, 6.43567, 0.149665, 34, 
8.01218, 6.42356, 0.147484, 31, 
7.92027, 6.42287, 0.145814, 31, 
7.8202, 6.41901, 0.143958, 30, 
6.94634, 5.76901, 0.118719, 15, 
6.91504, 5.8127, 0.118811, 1, 
6.88907, 5.85891, 0.119043, 3, 
7.16591, 6.16583, 0.128555, 0, 
6.71706, 5.84729, 0.115842, 0, 
7.41438, 6.53206, 0.138483, 0, 
6.40016, 5.77082, 0.109161, 1, 
6.38602, 5.82511, 0.109764, 2, 
6.21371, 5.80249, 0.10647, 1, 
6.06551, 5.79632, 0.103872, 1, 
5.89298, 5.76479, 0.100485, 1, 
5.83923, 5.91513, 0.102063, 26, 
5.8075, 5.94909, 0.102109, 12, 
5.77105, 5.98445, 0.102109, 22, 
5.73478, 6.01369, 0.102016, 24, 
5.68939, 6.03743, 0.101691, 6, 
5.59257, 6.14616, 0.102016, 7, 
5.55307, 6.17381, 0.101877, 3, 
5.51875, 6.20718, 0.101923, 7, 
5.47895, 6.23436, 0.101784, 9, 
5.45365, 6.28035, 0.102202, 6, 
5.37312, 6.26007, 0.100624, 0, 
5.21202, 6.2913, 0.0987684, 9, 
3.73134, 7.76355, 0.109068, 0, 
3.71566, 7.84635, 0.110646, 0, 
3.68815, 7.90567, 0.11162, 1, 
2.71245, 6.08941, 0.0638787, 18, 
2.67011, 6.08845, 0.0634612, 27, 
2.62522, 6.08399, 0.0629508, 33, 
2.58154, 6.07877, 0.0624405, 28, 
2.55342, 6.11014, 0.062858, 5, 
1.65719, 6.03284, 0.0543676, 0, 
1.61516, 6.01525, 0.053718, 2, 
1.50169, 6.00955, 0.0529293, 23, 
1.46421, 6.00644, 0.0526509, 35, 
1.42623, 6.0053, 0.052419, 35, 
1.39267, 6.01317, 0.052419, 32, 
1.35362, 6.00159, 0.051955, 26, 
1.31607, 6.00584, 0.0518622, 16, 
1.28168, 6.00918, 0.0517694, 12, 
-0.484758, 5.88365, 0.184501, 2, 
-0.517584, 5.86882, 0.183942, 3, 
-0.553337, 5.87559, 0.184408, 4, 
-0.586739, 5.87837, 0.184688, 4, 
-0.622873, 5.88671, 0.185247, 5, 
-0.657432, 5.88898, 0.185526, 7, 
-0.691339, 5.88509, 0.185526, 10, 
-0.72576, 5.87692, 0.18534, 10, 
-0.760365, 5.87859, 0.185619, 13, 
-0.795014, 5.88005, 0.185899, 19, 
-0.830172, 5.87721, 0.185992, 22, 
-0.864726, 5.88434, 0.186551, 28, 
-0.900536, 5.88503, 0.18683, 28, 
-0.935043, 5.88369, 0.187017, 28, 
-0.970592, 5.88198, 0.187203, 30, 
-1.00343, 5.87647, 0.187203, 28, 
-1.03967, 5.87828, 0.187576, 28, 
-1.07387, 5.87416, 0.187669, 30, 
-1.10806, 5.86984, 0.187762, 30, 
-1.14363, 5.86708, 0.187948, 30, 
-1.1778, 5.86236, 0.188042, 30, 
-1.21235, 5.85939, 0.188228, 28, 
-1.24835, 5.85795, 0.188507, 28, 
-1.28233, 5.85674, 0.188787, 31, 
-1.31926, 5.85878, 0.189253, 33, 
-1.35253, 5.84914, 0.18916, 31, 
-1.38758, 5.84708, 0.189439, 31, 
-1.42556, 5.85233, 0.190091, 31, 
-1.46021, 5.8479, 0.190278, 31, 
-1.49437, 5.84133, 0.190371, 31, 
-1.53103, 5.84009, 0.190743, 31, 
-1.56621, 5.84109, 0.191209, 33, 
-1.60296, 5.8394, 0.191582, 31, 
-1.6371, 5.832, 0.191675, 31, 
-1.67499, 5.8337, 0.192234, 31, 
-1.70979, 5.83192, 0.192607, 33, 
-1.74781, 5.83316, 0.193166, 33, 
-1.78313, 5.82873, 0.193445, 31, 
-1.81906, 5.82599, 0.193818, 36, 
-1.85602, 5.8227, 0.194191, 33, 
-1.89818, 5.83852, 0.195495, 39, 
-1.93932, 5.85024, 0.196613, 39, 
-3.84555, 11.3808, 0.469404, 24, 
-3.91624, 11.3736, 0.470149, 25, 
-3.98895, 11.3652, 0.470894, 24, 
-4.06107, 11.3609, 0.471826, 24, 
-4.1319, 11.3523, 0.472571, 25, 
-4.21169, 11.3613, 0.474248, 25, 
-2.22671, 5.90528, 0.203507, 18, 
-2.25527, 5.87517, 0.202669, 9, 
-3.72573, 9.54124, 0.386858, 16, 
-3.51673, 8.70421, 0.346983, 5, 
-4.11257, 10.0125, 0.41397, 5, 
-3.46744, 8.30547, 0.328909, 4, 
-2.52526, 5.85795, 0.206675, 11, 
-3.62229, 8.26748, 0.33012, 2, 
-3.60324, 8.09681, 0.322481, 4, 
-3.24798, 7.07788, 0.272357, 1, 
-3.24097, 6.95345, 0.266953, 1, 
-2.81378, 5.77167, 0.208631, 32, 
-2.85672, 5.77506, 0.209656, 39, 
-2.88445, 5.75009, 0.20919, 39, 
-2.9304, 5.75373, 0.210308, 27, 
-2.96891, 5.7497, 0.210961, 31, 
-3.00854, 5.74259, 0.21152, 29, 
-3.04719, 5.73576, 0.212079, 24, 
-3.09154, 5.73922, 0.213197, 29, 
-3.137, 5.74411, 0.214408, 27, 
-3.17683, 5.73588, 0.214967, 27, 
-3.22253, 5.74014, 0.216178, 29, 
-3.26344, 5.73537, 0.216923, 31, 
-3.3084, 5.73725, 0.218041, 24, 
-3.35045, 5.73131, 0.218787, 24, 
-3.38748, 5.7188, 0.219159, 29, 
-3.42858, 5.7129, 0.219905, 27, 
-3.47181, 5.71012, 0.220836, 27, 
-3.51716, 5.70813, 0.221861, 29, 
-3.56479, 5.71151, 0.223165, 24, 
-3.61044, 5.71114, 0.224283, 29, 
-3.65504, 5.70644, 0.225215, 22, 
-3.69663, 5.70103, 0.226053, 29, 
-3.74476, 5.70302, 0.227358, 22, 
-3.79281, 5.7, 0.228476, 27, 
-3.8324, 5.69033, 0.229128, 31, 
-3.88186, 5.69059, 0.230432, 27, 
-3.9123, 5.66485, 0.230246, 21, 
-3.73787, 5.34816, 0.213476, 4, 
-3.76954, 5.32588, 0.213476, 9, 
-3.8034, 5.30667, 0.213662, 11, 
-3.83391, 5.28467, 0.213662, 11, 
-3.95178, 5.38167, 0.220557, 5, 
-4.20318, 5.65546, 0.237792, 18, 
-4.2525, 5.65351, 0.239097, 23, 
-4.29928, 5.64566, 0.240122, 22, 
-4.35345, 5.64695, 0.241705, 22, 
-4.40212, 5.6446, 0.24301, 22, 
-4.45064, 5.63954, 0.244221, 22, 
-4.49775, 5.6302, 0.245246, 22, 
-4.55423, 5.63607, 0.247109, 22, 
-4.60755, 5.63134, 0.248507, 23, 
-4.65549, 5.62552, 0.249718, 22, 
-4.70834, 5.62313, 0.251208, 23, 
-4.76229, 5.61947, 0.252699, 22, 
-4.04025, 4.55064, 0.192979, 21, 
-4.02045, 4.47457, 0.189719, 20, 
-4.02465, 4.42769, 0.188228, 18, 
-4.04409, 4.39638, 0.187762, 20, 
-4.0394, 4.34084, 0.185713, 18, 
-4.06297, 4.31604, 0.185619, 19, 
-4.10016, 4.30559, 0.186458, 19, 
-4.14782, 4.3042, 0.187948, 7, 
-5.58523, 5.7294, 0.282326, 5, 
-5.70307, 5.71702, 0.285773, 4, 
-5.77379, 5.71963, 0.288195, 5, 
-9.13376, 8.94756, 0.505459, 6, 
-5.88335, 5.6934, 0.29099, 5, 
-8.85815, 8.47687, 0.480956, 6, 
-8.20874, 7.76533, 0.436143, 4, 
-7.9527, 7.34882, 0.414156, 12, 
-7.93884, 7.2517, 0.410616, 5, 
-6.27673, 5.66748, 0.303568, 5, 
-7.92943, 7.07729, 0.40484, 6, 
-7.92334, 6.98782, 0.401858, 9, 
-6.48612, 5.65422, 0.310462, 5, 
-6.56346, 5.65344, 0.313164, 4, 
-6.68262, 5.68937, 0.318474, 4, 
-6.68525, 5.62751, 0.316704, 4, 
-6.77536, 5.63501, 0.320151, 5, 
-6.89259, 5.66566, 0.325276, 5, 
-7.85316, 6.30508, 0.378846, 13, 
-7.43808, 5.89958, 0.351921, 12, 
-7.49764, 5.80739, 0.351455, 11, 
-7.53515, 5.76522, 0.351642, 5, 
-7.63467, 5.70315, 0.353598, 6, 
-7.71761, 5.62778, 0.354623, 11, 
-7.78167, 5.60407, 0.356393, 13, 
-7.82196, 5.56495, 0.356859, 13, 
-8.03368, 5.64617, 0.367107, 13, 
-8.21969, 5.70432, 0.375772, 13, 
-8.25142, 5.65833, 0.375772, 11, 
-8.25507, 5.5891, 0.374095, 9, 
-8.2748, 5.53114, 0.373349, 11, 
-8.26556, 5.45841, 0.371113, 11, 
-8.266, 5.38854, 0.369343, 16, 
-8.34058, 5.36896, 0.371766, 13, 
-8.43206, 5.35941, 0.37512, 16, 
-8.52371, 5.34899, 0.378474, 22, 
-8.66307, 5.36714, 0.384436, 11, 
-8.76635, 5.35941, 0.388349, 11, 
-8.87576, 5.35631, 0.392635, 9, 
-8.97605, 5.34443, 0.396361, 9, 
-9.08154, 5.33877, 0.400461, 6, 
-9.16836, 5.31685, 0.403442, 6, 
-9.2734, 5.30663, 0.407448, 9, 
-9.37513, 5.2934, 0.411268, 6, 
-9.49365, 5.28627, 0.415926, 11, 
-9.60799, 5.27767, 0.420398, 9, 
-9.70933, 5.26296, 0.424218, 6, 
-9.8435, 5.25815, 0.429622, 5, 
-9.98407, 5.26177, 0.435491, 9, 
-10.0789, 5.23559, 0.438845, 6, 
-10.2085, 5.22845, 0.444063, 12, 
-10.3312, 5.21639, 0.448907, 8, 
-10.4523, 5.2022, 0.453659, 12, 
-10.5879, 5.19383, 0.459155, 6, 
-10.7193, 5.17958, 0.464373, 12, 
-10.8463, 5.16413, 0.469404, 10, 
-10.9754, 5.14824, 0.474528, 12, 
-11.1, 5.12658, 0.479373, 9, 
-11.2258, 5.10641, 0.48431, 9, 
-11.3881, 5.10129, 0.491112, 13, 
-11.4922, 5.06867, 0.494931, 9, 
-11.644, 5.05571, 0.501173, 7, 
-11.8318, 5.05401, 0.509186, 13, 
-11.997, 5.04307, 0.51608, 9, 
-12.1504, 5.02293, 0.522322, 6, 
-12.2949, 5.00243, 0.528192, 6, 
-12.4496, 4.982, 0.534527, 11, 
-12.6165, 4.96215, 0.541421, 9, 
-12.766, 4.93623, 0.547477, 12, 
-12.9604, 4.9258, 0.555769, 12, 
-13.1448, 4.90679, 0.563502, 14, 
-13.3614, 4.90281, 0.572912, 8, 
-13.5331, 4.87489, 0.579992, 7, 
-13.7418, 4.86083, 0.588936, 9, 
-13.9705, 4.84863, 0.598812, 9, 
-20.097, 6.84551, 0.899273, 11, 
-20.2726, 6.77524, 0.905981, 12, 
-9.02098, 2.84084, 0.350244, 4, 
-17.5666, 5.20012, 0.76353, 11, 
-17.5463, 5.0844, 0.761107, 11, 
-17.3994, 4.93008, 0.752536, 11, 
-17.2715, 4.78657, 0.74499, 10, 
-17.2699, 4.67918, 0.743592, 10, 
-17.3553, 4.59195, 0.746387, 10, 
-17.6998, 4.57748, 0.76176, 11, 
-18.0114, 4.54421, 0.775455, 11, 
-18.3244, 4.51108, 0.789244, 12, 
-18.6182, 4.46982, 0.802101, 12, 
-18.9751, 4.43659, 0.817939, 12, 
-19.3353, 4.40353, 0.833963, 13, 
-19.7076, 4.36906, 0.850547, 10, 
-20.1472, 4.34126, 0.870298, 10, 
-20.5035, 4.29835, 0.886137, 11, 
-20.9652, 4.26543, 0.906913, 12, 
-21.4893, 4.2433, 0.93067, 12, 
-21.9771, 4.20429, 0.952657, 13, 
-22.3971, 4.1551, 0.971477, 9, 
-22.913, 4.11031, 0.994768, 14, 
-23.4303, 4.06397, 1.01815, 15, 
-23.9932, 4.01939, 1.04368, 15, 
-24.5709, 3.96641, 1.06986, 16, 
-25.1315, 3.91303, 1.09529, 17, 
-25.8399, 3.86642, 1.12762, 18, 
-26.5776, 3.82043, 1.16135, 13, 
-27.1811, 3.74751, 1.18874, 20, 
-27.591, 3.63733, 1.207, 6, 
-27.8038, 3.50258, 1.21604, 7, 
-34.5923, -0.0784876, 1.52237, 19, 
-34.6752, -0.272344, 1.52628, 19, 
-35.1166, -0.888895, 1.54734, 20, 
-47.9386, -13.2045, 2.22801, 24, 
-46.9345, -13.2281, 2.1832, 25, 
-45.9073, -13.2244, 2.13708, 25, 
-44.9372, -13.2257, 2.09366, 26, 
-44.0238, -13.2413, 2.05304, 27, 
-43.1222, -13.2332, 2.0127, 27, 
-42.2708, -13.2469, 1.97497, 28, 
-41.4326, -13.2467, 1.9377, 29, 
-39.8929, -13.2706, 1.86979, 30, 
-39.1517, -13.275, 1.83708, 30, 
-38.4364, -13.2797, 1.80559, 31, 
-37.7242, -13.2774, 1.7742, 31, 
-37.0603, -13.2841, 1.74513, 60, 
-36.4179, -13.2982, 1.71718, 28, 
-35.792, -13.3038, 1.68988, 27, 
-35.1817, -13.3151, 1.66342, 26, 
-34.5717, -13.3055, 1.63668, 24, 
-33.2853, -13.031, 1.57613, 21, 
-33.419, -13.3125, 1.58675, 22, 
-32.8682, -13.3063, 1.5628, 42, 
-32.3318, -13.3196, 1.53988, 39, 
-31.8165, -13.3157, 1.51762, 37, 
-31.3164, -13.3188, 1.49619, 35, 
-30.8077, -13.3189, 1.47439, 33, 
-30.3372, -13.3234, 1.45436, 46, 
-29.8805, -13.3287, 1.43498, 43, 
-29.4229, -13.3282, 1.41551, 27, 
-28.9862, -13.3322, 1.39706, 25, 
-28.3111, -13.2258, 1.36641, 22, 
-27.8373, -13.2003, 1.34591, 30, 
-27.5178, -13.2434, 1.33333, 37, 
-27.5159, -13.4442, 1.33734, 38, 
-27.4995, -13.6269, 1.34042, 19, 
-27.5074, -13.8348, 1.34507, 29, 
-28.4019, -14.697, 1.40051, 12, 
-29.8823, -15.9088, 1.4879, 17, 
-29.3665, -15.8519, 1.46544, 16, 
-28.9435, -15.8395, 1.44784, 30, 
-28.8769, -16.0265, 1.44933, 15, 
-23.5384, -13.2361, 1.16852, 19, 
-20.542, -11.7122, 1.01191, 10, 
-20.4482, -11.8153, 1.01051, 15, 
-2.91719, -1.73141, 0.0673913, 0, 
-2.94634, -1.81828, 0.0706521, 0, 
-2.90702, -1.81722, 0.0690683, 2, 
-3.06868, -1.94294, 0.0785713, 0, 
-2.90969, -1.93832, 0.072236, 0, 
-2.90808, -1.96226, 0.072795, 3, 
-2.92835, -2.02467, 0.0752173, 2, 
-19.1823, -13.5969, 1.00567, 4, 
-18.9341, -13.5905, 0.996073, 4, 
-2.6238, -1.92878, 0.061056, 0, 
-2.64116, -1.96579, 0.062733, 0, 
-17.8398, -13.6051, 0.955452, 4, 
-17.6275, -13.5995, 0.94744, 4, 
-17.4583, -13.635, 0.942223, 4, 
-16.8047, -13.6033, 0.91744, 4, 
-16.6125, -13.602, 0.910453, 8, 
-16.4216, -13.6044, 0.903652, 7, 
-16.212, -13.5938, 0.895826, 7, 
-12.5121, -10.6148, 0.67437, 4, 
-15.3022, -13.6051, 0.864056, 3, 
-15.1152, -13.5955, 0.857255, 3, 
-2.11896, -1.9281, 0.0427954, 1, 
-2.04105, -1.90065, 0.0392551, 10, 
-2.01665, -1.90039, 0.0384166, 10, 
-1.98976, -1.89681, 0.0373918, 10, 
-1.96697, -1.89749, 0.0366465, 8, 
-1.94347, -1.89589, 0.035808, 9, 
-1.91939, -1.89476, 0.0349695, 9, 
-1.89996, -1.89731, 0.0344105, 10, 
-1.85527, -1.87415, 0.0321745, 9, 
-1.77427, -1.81372, 0.0275162, 9, 
-1.75716, -1.81642, 0.0270503, 10, 
-1.73839, -1.81785, 0.0264913, 10, 
-1.71385, -1.81361, 0.0255597, 12, 
-1.6911, -1.81031, 0.0247212, 8, 
-1.66813, -1.8071, 0.0238827, 2, 
-1.64154, -1.79897, 0.0227647, 3, 
-1.61672, -1.81329, 0.0224852, 5, 
-1.59568, -1.81058, 0.0217399, 5, 
-1.58654, -1.82125, 0.021833, 7, 
-1.56559, -1.81824, 0.0210877, 8, 
-1.5525, -1.82419, 0.0209014, 8, 
-1.52751, -1.81655, 0.0198765, 8, 
-1.51064, -1.81763, 0.0194107, 8, 
-1.49507, -1.82013, 0.019038, 8, 
-1.47795, -1.82121, 0.0185722, 8, 
-1.46275, -1.8232, 0.0181995, 8, 
-1.44198, -1.81933, 0.0174542, 8, 
-1.42901, -1.82446, 0.0172679, 8, 
-1.40748, -1.81844, 0.0164294, 8, 
-1.39577, -1.82493, 0.0163362, 9, 
-1.37319, -1.817, 0.0154046, 9, 
-1.36238, -1.82511, 0.0154046, 9, 
-1.34236, -1.82007, 0.0146592, 9, 
-1.32683, -1.82154, 0.0142866, 9, 
-1.31313, -1.82406, 0.0140071, 8, 
-1.2945, -1.8202, 0.0133549, 8, 
-1.27909, -1.82131, 0.0129822, 8, 
-1.26092, -1.81693, 0.0123301, 8, 
-1.24528, -1.81801, 0.0119574, 8, 
-1.23175, -1.81997, 0.0116779, 8, 
-1.2157, -1.81873, 0.0112121, 8, 
-1.20158, -1.82091, 0.0109326, 9, 
-1.18453, -1.81776, 0.0103736, 9, 
-1.1708, -1.81951, 0.0100941, 8, 
-1.15601, -1.81948, 0.00972141, 8, 
-1.14021, -1.81764, 0.00925558, 8, 
-1.12519, -1.81758, 0.00888291, 8, 
-1.11366, -1.82233, 0.00878975, 8, 
-1.09696, -1.81845, 0.00823075, 8, 
-1.08104, -1.81634, 0.00776492, 8, 
-1.06885, -1.81891, 0.00757858, 8, 
-1.05535, -1.81985, 0.00729908, 7, 
-1.03561, -1.81047, 0.00646059, 7, 
-1.02713, -1.81988, 0.00664692, 8, 
-1.01274, -1.81879, 0.00627426, 7, 
-1.00032, -1.82109, 0.00608792, 7, 
-0.983157, -1.81452, 0.00543576, 7, 
-0.967665, -1.81152, 0.00496993, 7, 
-0.957216, -1.81706, 0.00496993, 8, 
-0.940288, -1.81013, 0.00431776, 8, 
-0.931668, -1.81907, 0.0045041, 7, 
-0.918157, -1.81922, 0.0042246, 7, 
-0.905311, -1.81895, 0.0039451, 8, 
-0.890984, -1.81712, 0.00357243, 8, 
-0.878765, -1.81862, 0.0033861, 8, 
-0.865699, -1.81824, 0.0031066, 7, 
-0.850654, -1.8143, 0.00264077, 8, 
-0.838831, -1.8154, 0.00245444, 7, 
-0.823908, -1.81125, 0.00198861, 7, 
-0.815096, -1.81961, 0.00217494, 7, 
-0.802183, -1.81879, 0.00189544, 8, 
-0.786604, -1.81253, 0.00133644, 8, 
-0.774899, -1.81322, 0.00115011, 8, 
-0.761803, -1.81226, 0.000870612, 7, 
-0.749825, -1.81292, 0.000684279, 7, 
-0.738618, -1.81536, 0.000591113, 7, 
-0.726666, -1.81587, 0.00040478, 7, 
-0.715464, -1.81817, 0.000311614, 7, 
-0.703941, -1.82052, 0.000218448, 7, 
-0.692025, -1.82081, 3.21153e-05, 7, 
-0.675235, -1.80792, -0.000806381, 6, 
-0.664811, -1.81178, -0.000806381, 7, 
-0.654365, -1.81558, -0.000806381, 7, 
-0.642247, -1.81566, -0.000992714, 7, 
-0.63013, -1.81356, -0.00127221, 7, 
-0.616134, -1.80781, -0.00173804, 7, 
-0.606979, -1.81512, -0.00155171, 7, 
-0.594647, -1.81289, -0.00183121, 7, 
-0.582044, -1.81068, -0.00211071, 7, 
-0.572807, -1.81782, -0.00192438, 8, 
-0.560559, -1.81536, -0.00220388, 7, 
-0.548359, -1.81282, -0.00248337, 7, 
-0.539043, -1.81978, -0.00229704, 8, 
-0.524899, -1.81143, -0.00285604, 7, 
-0.515547, -1.81827, -0.00266971, 7, 
-0.502713, -1.8115, -0.00313554, 7, 
-0.489025, -1.80489, -0.00360137, 6, 
-0.480472, -1.81339, -0.00332187, 7, 
-0.469019, -1.81226, -0.0035082, 7, 
-0.457768, -1.81307, -0.00360137, 7, 
-0.445243, -1.8059, -0.0040672, 6, 
-0.436386, -1.81628, -0.00369454, 7, 
-0.425918, -1.81876, -0.00369454, 7, 
-0.414102, -1.81534, -0.00397403, 7, 
-0.402457, -1.81387, -0.00416037, 7, 
-0.391899, -1.81414, -0.00425353, 7, 
-0.381126, -1.81643, -0.00425353, 7, 
-0.36986, -1.81468, -0.00443987, 7, 
-0.358698, -1.81488, -0.00453303, 7, 
-0.348933, -1.81882, -0.00443987, 7, 
-0.337721, -1.81687, -0.0046262, 7, 
-0.32658, -1.81688, -0.00471936, 8, 
-0.3144, -1.80889, -0.0051852, 7, 
-0.305312, -1.82057, -0.00471936, 8, 
-0.293543, -1.81239, -0.0051852, 7, 
-0.283407, -1.81602, -0.00509203, 7, 
-0.271737, -1.81174, -0.00537153, 7, 
-0.262437, -1.82119, -0.00499886, 8, 
-0.250533, -1.8148, -0.00537153, 8, 
-0.240393, -1.81617, -0.00537153, 8, 
-0.229427, -1.81356, -0.00555786, 8, 
-0.218423, -1.8129, -0.00565103, 8, 
-0.20775, -1.81215, -0.00574419, 8, 
-0.197741, -1.81729, -0.00555786, 8, 
-0.186862, -1.81442, -0.00574419, 8, 
-0.175829, -1.8095, -0.00602369, 8, 
-0.165088, -1.81051, -0.00602369, 8, 
-0.154998, -1.81542, -0.00583736, 8, 
-0.143905, -1.80831, -0.00621002, 9, 
-0.132732, -1.80316, -0.00648952, 9, 
-0.122659, -1.80387, -0.00648952, 9, 
-0.112516, -1.80853, -0.00630319, 10, 
-0.10167, -1.80718, -0.00639636, 10, 
-0.0908565, -1.79975, -0.00676902, 11, 
-0.0809354, -1.81022, -0.00630319, 16, 
-0.0702747, -1.80467, -0.00658269, 19, 
-0.0594327, -1.80106, -0.00676902, 20, 
-0.0492215, -1.80736, -0.00648952, 26, 
-0.0387253, -1.80362, -0.00667586, 37, 
-0.0283366, -1.80382, -0.00667586, 39, 
-0.0179271, -1.80195, -0.00676902, 54, 
-0.00724186, -1.80402, -0.00667586, 63, 
0.00283692, -1.80604, -0.00658269, 63, 
0.0138999, -1.80998, -0.00639636, 67, 
0.024035, -1.81187, -0.00630319, 67, 
0.0344702, -1.8117, -0.00630319, 70, 
0.0450209, -1.80348, -0.00667586, 56, 
0.0553367, -1.81119, -0.00630319, 41, 
0.0659378, -1.80683, -0.00648952, 32, 
0.0763432, -1.80642, -0.00648952, 24, 
0.0864586, -1.79997, -0.00676902, 11, 
0.0978921, -1.81339, -0.00611686, 8, 
0.108096, -1.8088, -0.00630319, 5, 
0.118512, -1.80815, -0.00630319, 4, 
0.128356, -1.79947, -0.00667586, 4, 
0.139333, -1.80667, -0.00630319, 4, 
0.149406, -1.80185, -0.00648952, 4, 
0.160664, -1.81091, -0.00602369, 5, 
0.171219, -1.80794, -0.00611686, 6, 
0.182028, -1.8109, -0.00593053, 4, 
0.192244, -1.80783, -0.00602369, 4, 
0.203321, -1.81265, -0.00574419, 4, 
0.214074, -1.81141, -0.00574419, 4, 
0.223028, -1.79825, -0.00630319, 4, 
0.233124, -1.79496, -0.00639636, 4, 
0.244265, -1.79952, -0.00611686, 4, 
0.254065, -1.79413, -0.00630319, 4, 
0.26556, -1.80054, -0.00593053, 4, 
0.289113, -1.8131, -0.0051852, 9, 
0.299225, -1.80943, -0.00527836, 8, 
0.310654, -1.81359, -0.00499886, 9, 
0.320745, -1.8098, -0.00509203, 8, 
0.333281, -1.81769, -0.0046262, 9, 
0.344116, -1.8177, -0.00453303, 9, 
0.353497, -1.81183, -0.00471936, 8, 
0.364953, -1.8116, -0.0046262, 8, 
0.373849, -1.80366, -0.0049057, 6, 
0.387048, -1.81313, -0.0043467, 5, 
0.398341, -1.81478, -0.00416037, 6, 
0.409788, -1.81837, -0.00388087, 7, 
0.421923, -1.82175, -0.00360137, 5, 
0.430561, -1.81151, -0.00397403, 5, 
0.44225, -1.81281, -0.0037877, 7, 
0.455107, -1.81992, -0.00332187, 7, 
0.464094, -1.81146, -0.00360137, 5, 
0.475533, -1.81262, -0.00341504, 8, 
0.488355, -1.81749, -0.00304237, 8, 
0.499344, -1.81657, -0.00294921, 7, 
0.510339, -1.81559, -0.00285604, 7, 
0.523546, -1.82222, -0.00239021, 7, 
0.532344, -1.81342, -0.00266971, 7, 
0.54278, -1.81033, -0.00266971, 6, 
0.554683, -1.8109, -0.00248337, 5, 
0.568084, -1.8172, -0.00201754, 7, 
0.578541, -1.8139, -0.00201754, 6, 
0.589913, -1.81234, -0.00192438, 5, 
0.596252, -1.79764, -0.00248337, 4, 
0.60883, -1.79974, -0.00220388, 3, 
0.617232, -1.79054, -0.00248337, 4, 
0.633177, -1.80403, -0.00164488, 4, 
0.649571, -1.81518, -0.000899547, 7, 
0.660382, -1.8134, -0.000806381, 8, 
0.671131, -1.80945, -0.000806381, 9, 
0.684364, -1.81303, -0.000433716, 8, 
0.694795, -1.80906, -0.000433716, 9, 
0.708111, -1.81247, -6.1051e-05, 8, 
0.722964, -1.8195, 0.000497947, 7, 
0.733, -1.81333, 0.00040478, 8, 
0.746469, -1.81647, 0.000777445, 7, 
0.755379, -1.80845, 0.000591113, 6, 
0.769685, -1.81326, 0.00105694, 8, 
0.784389, -1.81784, 0.00152278, 9, 
0.791638, -1.80597, 0.00115011, 9, 
0.805277, -1.80868, 0.00152278, 9, 
0.818973, -1.8113, 0.00189544, 9, 
0.830225, -1.80836, 0.00198861, 9, 
0.844003, -1.8108, 0.00236127, 9, 
0.856443, -1.80937, 0.0025476, 9, 
0.87031, -1.81161, 0.00292027, 9, 
0.882481, -1.81016, 0.0031066, 9, 
0.895865, -1.81026, 0.0033861, 9, 
0.90865, -1.81058, 0.0036656, 8, 
0.922098, -1.8105, 0.0039451, 8, 
0.938012, -1.81581, 0.0045041, 7, 
0.952163, -1.81746, 0.00487676, 8, 
0.961994, -1.81001, 0.00478359, 8, 
0.97493, -1.80989, 0.00506309, 8, 
0.987569, -1.80757, 0.00524943, 7, 
1.00474, -1.81409, 0.00590159, 7, 
1.01517, -1.80827, 0.00590159, 9, 
1.02853, -1.80761, 0.00618109, 9, 
1.04224, -1.80666, 0.00646059, 9, 
1.05464, -1.80408, 0.00664692, 9, 
1.0701, -1.80657, 0.00711275, 9, 
1.08255, -1.8038, 0.00729908, 8, 
1.09842, -1.80588, 0.00776492, 9, 
1.11614, -1.81143, 0.00841708, 8, 
1.12656, -1.80497, 0.00841708, 9, 
1.14121, -1.80521, 0.00878975, 9, 
1.15589, -1.80534, 0.00916241, 8, 
1.17311, -1.8085, 0.00972141, 9, 
1.18538, -1.80526, 0.00990774, 8, 
1.20082, -1.80464, 0.0102804, 9, 
1.21534, -1.80453, 0.0106531, 9, 
1.22684, -1.79915, 0.0107462, 8, 
1.24658, -1.80499, 0.0114916, 9, 
1.26039, -1.8027, 0.0117711, 8, 
1.27536, -1.80193, 0.0121437, 8, 
1.29302, -1.80407, 0.0127027, 8, 
1.30425, -1.79844, 0.0127959, 6, 
1.31726, -1.79389, 0.0129822, 5, 
1.33472, -1.79589, 0.0135412, 8, 
1.34024, -1.78179, 0.0131686, 3, 
1.352, -1.77539, 0.0132617, 3, 
1.41465, -1.79255, 0.015684, 11, 
1.43773, -1.79973, 0.0166157, 11, 
1.45153, -1.79633, 0.0168952, 9, 
1.47228, -1.80006, 0.0176405, 9, 
1.49027, -1.80078, 0.0181995, 4, 
11.5814, -13.5074, 0.738934, 13, 
11.71, -13.4994, 0.742567, 13, 
11.7981, -13.4437, 0.743313, 18, 
11.9019, -13.4054, 0.745176, 21, 
12.0199, -13.3776, 0.747878, 19, 
12.1761, -13.3954, 0.753375, 13, 
12.4035, -13.4934, 0.763902, 16, 
12.6626, -13.6075, 0.776014, 20, 
12.7836, -13.5846, 0.779088, 17, 
13.0706, -13.7255, 0.793063, 18, 
13.2215, -13.7248, 0.797908, 18, 
13.3771, -13.7271, 0.803032, 15, 
13.5387, -13.7338, 0.808529, 15, 
13.6937, -13.732, 0.81356, 15, 
13.8601, -13.7349, 0.81915, 15, 
13.9133, -13.6297, 0.817473, 18, 
14.0303, -13.5868, 0.819988, 18, 
14.2223, -13.6149, 0.827349, 19, 
14.3174, -13.544, 0.82828, 13, 
14.4302, -13.4941, 0.830516, 13, 
14.5399, -13.4406, 0.832566, 16, 
14.654, -13.3903, 0.834895, 16, 
14.8044, -13.3674, 0.839367, 13, 
15.1172, -13.4974, 0.854274, 14, 
15.3402, -13.529, 0.863031, 14, 
15.5149, -13.5298, 0.86918, 14, 
15.697, -13.5302, 0.875609, 14, 
15.8835, -13.5275, 0.88213, 15, 
16.0773, -13.5336, 0.889211, 15, 
16.261, -13.5289, 0.895639, 15, 
16.4621, -13.5365, 0.903093, 15, 
16.6545, -13.5347, 0.909987, 16, 
16.8545, -13.532, 0.917161, 16, 
17.0589, -13.5353, 0.924707, 16, 
17.2655, -13.5379, 0.932347, 17, 
17.475, -13.5355, 0.939987, 17, 
17.6836, -13.5397, 0.947813, 17, 
17.8991, -13.537, 0.955732, 18, 
18.1208, -13.5413, 0.964117, 18, 
18.339, -13.5355, 0.972129, 18, 
18.5612, -13.54, 0.980607, 19, 
18.7936, -13.5394, 0.989365, 19, 
19.0227, -13.5387, 0.998029, 19, 
18.8372, -13.2439, 0.983029, 9, 
18.8728, -13.1023, 0.980607, 19, 
18.9331, -12.9832, 0.979769, 9, 
19.9868, -13.5372, 1.03492, 21, 
20.2362, -13.5316, 1.04443, 21, 
20.4981, -13.5417, 1.05486, 21, 
20.7639, -13.541, 1.0652, 22, 
21.0297, -13.5423, 1.07564, 22, 
21.2995, -13.5432, 1.08626, 23, 
21.5843, -13.545, 1.09753, 23, 
21.8708, -13.5499, 1.10899, 24, 
22.1581, -13.5519, 1.12045, 24, 
22.441, -13.548, 1.13163, 24, 
22.7401, -13.5504, 1.14365, 25, 
23.0406, -13.5449, 1.15557, 25, 
23.3636, -13.5543, 1.1688, 26, 
23.6725, -13.5464, 1.1811, 26, 
23.9861, -13.5486, 1.19386, 27, 
24.3237, -13.5551, 1.20775, 27, 
24.6611, -13.552, 1.22144, 28, 
24.6703, -13.3726, 1.21781, 14, 
24.4038, -13.0414, 1.19955, 20, 
21.2566, -11.2026, 1.02971, 20, 
21.29, -10.9087, 1.02477, 25, 
26.7719, -13.1328, 1.29979, 15, 
26.8363, -12.9732, 1.29924, 23, 
27.0049, -12.8575, 1.30399, 15, 
28.9789, -13.5994, 1.402, 12, 
21.9534, -10.1439, 1.03697, 5, 
22.3043, -10.1505, 1.05197, 5, 
28.1471, -12.6144, 1.34759, 10, 
28.1301, -12.4068, 1.34293, 29, 
28.2139, -12.2502, 1.34358, 29, 
31.8718, -13.6208, 1.52554, 19, 
32.388, -13.6213, 1.54771, 20, 
32.9404, -13.6309, 1.57165, 21, 
28.6442, -11.6545, 1.35132, 20, 
28.6107, -11.4493, 1.34628, 40, 
26.118, -10.2724, 1.21799, 14, 
26.1545, -10.1184, 1.21697, 21, 
26.229, -9.9687, 1.21772, 21, 
29.0596, -10.8534, 1.35579, 31, 
37.239, -13.6644, 1.75901, 31, 
37.857, -13.6368, 1.78566, 31, 
38.5565, -13.6384, 1.8164, 31, 
29.0724, -9.9027, 1.34144, 9, 
40.8895, -13.6735, 1.91982, 29, 
41.6287, -13.6466, 1.95214, 28, 
42.475, -13.6536, 1.98978, 28, 
42.8997, -13.518, 2.00674, 28, 
55.0296, -16.9924, 2.59499, 42, 
54.9918, -16.6239, 2.58828, 41, 
55.0387, -16.2928, 2.58596, 41, 
55.1662, -15.9855, 2.58763, 41, 
55.1651, -15.6413, 2.58316, 41, 
55.0875, -15.2668, 2.57496, 41, 
52.1355, -14.1258, 2.42813, 33, 
52.1547, -13.7993, 2.42506, 33, 
52.3992, -13.5514, 2.43316, 33, 
54.6793, -13.7954, 2.539, 39, 
55.7588, -13.7266, 2.58707, 41, 
36.1184, 4.08325, 1.60426, 23, 
33.2175, 4.14923, 1.47029, 16, 
30.9973, 4.24059, 1.36818, 11, 
28.2529, 4.19722, 1.24119, 7, 
27.1542, 4.19398, 1.19051, 6, 
26.1788, 4.19784, 1.1456, 6, 
24.6198, 4.24372, 1.07424, 5, 
24.6138, 4.39326, 1.07517, 5, 
24.6537, 4.5426, 1.07825, 5, 
24.6134, 4.68191, 1.07759, 5, 
24.6656, 4.84367, 1.08141, 5, 
24.6255, 4.98327, 1.08085, 5, 
24.6855, 5.14808, 1.08514, 5, 
24.7004, 5.29981, 1.08728, 5, 
24.7436, 5.45834, 1.09082, 5, 
24.6679, 5.59535, 1.08877, 11, 
24.6849, 5.74435, 1.0911, 5, 
24.7305, 6.06067, 1.0966, 5, 
24.7688, 6.2215, 1.10014, 5, 
24.8296, 6.54636, 1.10666, 5, 
24.7317, 6.67313, 1.10377, 5, 
23.9734, 6.62138, 1.06902, 22, 
23.9591, 6.76168, 1.07014, 22, 
23.8592, 7.03573, 1.06921, 16, 
23.6143, 7.11608, 1.05933, 22, 
23.5436, 7.23847, 1.05784, 5, 
22.2975, 7.00044, 0.999054, 9, 
21.7545, 6.96787, 0.974458, 9, 
21.2374, 6.93734, 0.951073, 8, 
20.7447, 6.91292, 0.9289, 8, 
20.296, 6.8935, 0.908776, 8, 
19.8972, 6.88614, 0.891074, 15, 
18.7702, 6.8652, 0.84123, 13, 
18.3784, 6.84215, 0.823715, 13, 
17.9968, 6.81836, 0.806666, 12, 
17.6503, 6.80714, 0.791386, 12, 
17.3095, 6.79049, 0.776294, 11, 
16.9695, 6.77014, 0.761201, 13, 
16.6458, 6.75577, 0.746946, 10, 
16.3185, 6.73266, 0.732412, 13, 
16.0362, 6.72456, 0.720114, 15, 
15.8006, 6.73301, 0.710145, 15, 
15.5312, 6.72739, 0.6985, 14, 
15.2673, 6.71776, 0.68704, 15, 
15.0186, 6.71184, 0.676326, 15, 
14.7602, 6.70173, 0.665146, 17, 
13.1839, 6.07506, 0.586141, 3, 
13.1639, 6.16081, 0.58698, 3, 
12.6745, 6.11074, 0.565365, 3, 
12.5609, 6.14808, 0.561359, 1, 
12.1477, 6.03282, 0.541701, 3, 
12.1663, 6.12966, 0.544496, 5, 
13.7306, 7.02028, 0.628345, 2, 
12.1087, 6.36802, 0.547198, 17, 
12.0415, 6.69395, 0.55167, 15, 
11.9087, 6.71023, 0.546639, 24, 
11.5443, 6.59546, 0.529217, 26, 
10.2924, 6.03852, 0.465677, 1, 
10.139, 6.02726, 0.459249, 1, 
10.0791, 6.07288, 0.457944, 4, 
10.0296, 6.11971, 0.457106, 4, 
10.0125, 6.19348, 0.458224, 4, 
10.0014, 6.26415, 0.459528, 4, 
9.99047, 6.3377, 0.460926, 2, 
9.96781, 6.40659, 0.461764, 4, 
9.95419, 6.47916, 0.463068, 4, 
9.11998, 6.01352, 0.418628, 1, 
8.97886, 5.99495, 0.412666, 1, 
8.85916, 5.98684, 0.407821, 1, 
8.72786, 5.97385, 0.402417, 1, 
8.65061, 5.99444, 0.399995, 4, 
8.67213, 6.08583, 0.403256, 1, 
8.66462, 6.15535, 0.40484, 1, 
8.66633, 6.23198, 0.406982, 1, 
8.67067, 6.31118, 0.409312, 1, 
8.65237, 6.37675, 0.41043, 1, 
8.63471, 6.44081, 0.411548, 4, 
8.34874, 6.45729, 0.401392, 22, 
8.24848, 6.45602, 0.397666, 23, 
8.14426, 6.45274, 0.393753, 23, 
8.04305, 6.44831, 0.389933, 23, 
7.94484, 6.44279, 0.386206, 23, 
7.84933, 6.44293, 0.382759, 24, 
6.94528, 5.76813, 0.330213, 2, 
6.9201, 5.81695, 0.330772, 1, 
6.87279, 5.84507, 0.329934, 2, 
7.12674, 6.13213, 0.347635, 4, 
6.76281, 5.88712, 0.327325, 1, 
7.40983, 6.52805, 0.369716, 1, 
6.63833, 5.91661, 0.323878, 1, 
6.43648, 5.80357, 0.31335, 1, 
6.39704, 5.83516, 0.312978, 2, 
6.27142, 5.85639, 0.309344, 1, 
6.114, 5.84266, 0.303568, 1, 
5.90544, 5.71079, 0.292295, 1, 
5.90816, 5.77964, 0.294624, 1, 
5.87405, 5.88226, 0.29686, 5, 
5.84428, 5.92026, 0.297139, 8, 
5.81531, 5.95709, 0.297419, 9, 
5.77327, 5.98675, 0.297046, 8, 
5.73423, 6.01312, 0.296674, 5, 
5.70255, 6.0514, 0.296953, 6, 
5.61889, 6.03396, 0.293692, 2, 
5.623, 6.1064, 0.296301, 5, 
5.58666, 6.13966, 0.296301, 5, 
5.54987, 6.17025, 0.296208, 5, 
5.52486, 6.21406, 0.296953, 1, 
5.4837, 6.23977, 0.29658, 2, 
5.45444, 6.28126, 0.297139, 2, 
5.41947, 6.31408, 0.297233, 1, 
3.12401, 6.22222, 0.233879, 1, 
3.07414, 6.20914, 0.232296, 1, 
3.02081, 6.19083, 0.230432, 3, 
2.9719, 6.18344, 0.229128, 4, 
2.92341, 6.17337, 0.22773, 4, 
2.81267, 6.12362, 0.223445, 13, 
2.75947, 6.09737, 0.221302, 19, 
2.71593, 6.09721, 0.220464, 20, 
2.67274, 6.09446, 0.219532, 20, 
2.62624, 6.08636, 0.218321, 20, 
2.58255, 6.08116, 0.217296, 13, 
2.54825, 6.09778, 0.217389, 3, 
1.65478, 6.02406, 0.200526, 2, 
1.61488, 6.0142, 0.199594, 4, 
1.5445, 6.02853, 0.199408, 13, 
1.50628, 6.0279, 0.198942, 20, 
1.46917, 6.02677, 0.198476, 21, 
1.43015, 6.02178, 0.197824, 21, 
1.39469, 6.02188, 0.197451, 21, 
1.35735, 6.01812, 0.196892, 21, 
1.31799, 6.01459, 0.196333, 22, 
1.28105, 6.00623, 0.195588, 18, 
1.24619, 6.01764, 0.195774, 14, 
1.21191, 6.02668, 0.195868, 10, 
-0.451625, 5.89629, 0.322634, 2, 
-0.486888, 5.9095, 0.323749, 4, 
-0.519689, 5.89269, 0.322773, 6, 
-0.554648, 5.8895, 0.322773, 11, 
-0.589117, 5.90219, 0.323889, 18, 
-0.623711, 5.89463, 0.32361, 23, 
-0.65743, 5.88895, 0.32347, 25, 
-0.692035, 5.89101, 0.323889, 35, 
-0.728203, 5.8967, 0.324586, 41, 
-0.762409, 5.89439, 0.324726, 43, 
-0.79688, 5.89386, 0.325005, 45, 
-0.831283, 5.88507, 0.324726, 43, 
-0.865009, 5.88626, 0.325144, 43, 
-0.900526, 5.88497, 0.325423, 43, 
-0.934093, 5.87771, 0.325284, 43, 
-0.97058, 5.88191, 0.325981, 41, 
-1.00308, 5.87443, 0.325842, 43, 
-1.03862, 5.8723, 0.326121, 41, 
-1.07314, 5.87015, 0.3264, 43, 
-1.10767, 5.86779, 0.326679, 41, 
-1.14323, 5.86503, 0.326958, 43, 
-1.17542, 5.85053, 0.3264, 43, 
-1.21193, 5.85733, 0.327376, 43, 
-1.24791, 5.85589, 0.327794, 50, 
-1.28231, 5.85663, 0.328352, 48, 
-1.31704, 5.84892, 0.328352, 53, 
-1.35295, 5.85095, 0.32905, 48, 
-1.38847, 5.85083, 0.329608, 45, 
-1.42364, 5.84442, 0.329747, 50, 
-1.45921, 5.84387, 0.330305, 50, 
-1.49482, 5.8431, 0.330863, 50, 
-1.53048, 5.83799, 0.331142, 53, 
-1.56564, 5.83898, 0.33184, 50, 
-1.60343, 5.84113, 0.332677, 53, 
-1.63651, 5.82988, 0.332537, 50, 
-1.67603, 5.83733, 0.333792, 48, 
-1.71141, 5.83745, 0.33449, 45, 
-1.75003, 5.84057, 0.335466, 50, 
-1.78598, 5.83802, 0.336024, 50, 
-1.81898, 5.82573, 0.335885, 53, 
-1.85776, 5.82814, 0.336861, 53, 
-1.89931, 5.84201, 0.338674, 70, 
-1.94297, 5.86128, 0.340906, 76, 
-3.64073, 10.5735, 0.691018, 13, 
-4.18376, 11.9203, 0.792425, 3, 
-4.25907, 11.9148, 0.793819, 3, 
-4.33171, 11.9013, 0.794656, 3, 
-2.27153, 5.91753, 0.352344, 3, 
-3.53177, 8.89301, 0.578173, 1, 
-3.5501, 8.7868, 0.571757, 3, 
-2.52816, 5.86469, 0.355692, 12, 
-3.35237, 7.65143, 0.493226, 1, 
-3.39314, 7.6247, 0.492668, 0, 
-3.28873, 7.27357, 0.467281, 0, 
-3.25191, 7.08645, 0.454309, 0, 
-3.24671, 6.96576, 0.446498, 1, 
-2.8161, 5.77642, 0.358482, 63, 
-2.85817, 5.77799, 0.359876, 70, 
-2.8904, 5.76194, 0.359876, 80, 
-2.93278, 5.7584, 0.360992, 63, 
-2.97039, 5.75256, 0.361829, 59, 
-3.01466, 5.75428, 0.363364, 59, 
-3.0543, 5.74915, 0.36434, 59, 
-3.09115, 5.73849, 0.364898, 44, 
-3.13658, 5.74336, 0.366711, 59, 
-3.18221, 5.74558, 0.368385, 55, 
-3.22404, 5.74282, 0.36964, 59, 
-3.26791, 5.74323, 0.371175, 59, 
-3.30692, 5.73468, 0.372012, 63, 
-3.35197, 5.7339, 0.373546, 59, 
-3.39409, 5.72995, 0.374802, 63, 
-3.43627, 5.72571, 0.376057, 67, 
-3.48059, 5.72457, 0.377591, 59, 
-3.52602, 5.7225, 0.379126, 55, 
-3.56737, 5.71564, 0.380241, 63, 
-3.61515, 5.71861, 0.382194, 63, 
-3.65979, 5.71385, 0.383589, 59, 
-3.70358, 5.71174, 0.385124, 55, 
-3.74518, 5.70366, 0.386239, 55, 
-3.79763, 5.70725, 0.388471, 63, 
-3.83836, 5.69919, 0.389587, 63, 
-3.88898, 5.70103, 0.391679, 59, 
-3.89227, 5.63586, 0.388053, 37, 
-3.74196, 5.35401, 0.365874, 10, 
-3.77482, 5.33334, 0.366014, 18, 
-3.8064, 5.31085, 0.366014, 17, 
-3.83458, 5.28561, 0.365735, 18, 
-3.9984, 5.44515, 0.381497, 42, 
-4.21416, 5.67024, 0.403117, 45, 
-4.25874, 5.66182, 0.404512, 48, 
-4.31523, 5.6666, 0.407162, 48, 
-4.36462, 5.66144, 0.408976, 48, 
-4.41089, 5.65585, 0.41065, 45, 
-4.46194, 5.65385, 0.412742, 48, 
-4.51284, 5.64909, 0.414695, 48, 
-4.56188, 5.64553, 0.416648, 45, 
-4.61523, 5.64072, 0.41874, 45, 
-4.66828, 5.64098, 0.421111, 45, 
-4.72119, 5.63848, 0.423343, 45, 
-4.7752, 5.63471, 0.425575, 45, 
-4.03099, 4.70138, 0.342162, 45, 
-4.00701, 4.6193, 0.336722, 42, 
-4.03041, 4.59095, 0.336303, 45, 
-4.03346, 4.543, 0.333932, 38, 
-4.03368, 4.4893, 0.331142, 48, 
-4.03398, 4.43795, 0.328492, 45, 
-4.04943, 4.40218, 0.327376, 36, 
-4.01764, 4.31744, 0.321518, 41, 
-4.0438, 4.29569, 0.321657, 39, 
-4.07673, 4.28099, 0.322494, 39, 
-5.65678, 5.87006, 0.479138, 53, 
-5.62783, 5.77309, 0.472861, 36, 
-5.73523, 5.81587, 0.480253, 58, 
-5.77709, 5.79122, 0.48109, 18, 
-5.78867, 5.73437, 0.478859, 14, 
-8.99885, 8.8154, 0.789914, 15, 
-5.90121, 5.71069, 0.483322, 6, 
-8.14131, 7.79089, 0.697016, 4, 
-6.0879, 5.69098, 0.491831, 12, 
-7.82473, 7.23057, 0.654054, 10, 
-7.80585, 7.13022, 0.648335, 18, 
-7.80384, 7.04637, 0.64429, 4, 
-6.38112, 5.69537, 0.507174, 5, 
-6.70853, 5.71143, 0.525168, 3, 
-8.07893, 6.80068, 0.647498, 10, 
-6.79689, 5.65291, 0.52726, 7, 
-6.8879, 5.66181, 0.532561, 11, 
-7.91878, 6.35777, 0.619182, 25, 
-7.43116, 5.89409, 0.572315, 21, 
-7.84341, 6.14781, 0.605931, 27, 
-7.73042, 5.98769, 0.592819, 23, 
-8.03202, 6.14539, 0.616253, 14, 
-8.14526, 6.15798, 0.623088, 4, 
-7.64513, 5.71097, 0.57636, 6, 
-7.80068, 5.68836, 0.584171, 3, 
-7.85854, 5.59097, 0.583474, 18, 
-8.11097, 5.70049, 0.602304, 9, 
-8.29873, 5.75918, 0.615416, 10, 
-8.27976, 5.67776, 0.611092, 14, 
-8.27531, 5.60281, 0.607884, 14, 
-8.27358, 5.53032, 0.604955, 13, 
-8.2494, 5.44774, 0.600351, 14, 
-8.26152, 5.38562, 0.598678, 17, 
-8.33602, 5.36602, 0.602304, 14, 
-8.43077, 5.35859, 0.607605, 15, 
-8.52909, 5.35236, 0.613184, 15, 
-8.62932, 5.34623, 0.618903, 19, 
-8.73068, 5.3376, 0.624622, 14, 
-8.81765, 5.32124, 0.629225, 12, 
-8.92793, 5.31578, 0.635642, 7, 
-9.02455, 5.30526, 0.641082, 11, 
-9.14044, 5.30066, 0.647916, 10, 
-9.24528, 5.29054, 0.653914, 11, 
-9.35031, 5.27938, 0.659912, 13, 
-9.4634, 5.26942, 0.666468, 13, 
-9.58102, 5.26286, 0.673442, 10, 
-9.68744, 5.2511, 0.67958, 11, 
